# .PCD v0.7 - Point Cloud Data file format
VERSION 0.7
FIELDS x y z
SIZE 4 4 4
TYPE F F F
COUNT 1 1 1
WIDTH 1518
HEIGHT 1
VIEWPOINT 0 0 0 1 0 0 0
POINTS 1518
DATA ascii
84.490105 -109.99966 -201.36433
-108.02069 -89.519859 -203.5994
-89.789848 -90.028206 -206.69545
-69.111244 -89.806992 -208.90823
-49.916031 -89.93335 -209.04875
-29.431337 -89.834412 -206.2924
-9.9109221 -89.889816 -204.03436
9.9002275 -89.757523 -205.79303
29.784744 -90.550926 -207.11659
50.47348 -90.120255 -206.45703
70.531067 -90.27562 -203.93417
83.385559 -90.916191 -201.01436
-121.10663 -67.631691 -200.4496
-109.92401 -72.135941 -202.00391
-90.093597 -69.900642 -204.81041
-69.312592 -69.961937 -208.72792
-49.818336 -69.973824 -209.93153
-29.624365 -69.354324 -206.33884
-12.051293 -73.916832 -200.96268
11.836999 -71.91925 -202.08614
29.920483 -69.689529 -203.87654
49.864056 -70.113426 -204.96681
69.989037 -70.154373 -203.35503
82.060646 -71.029976 -200.64629
-120.89671 -59.660107 -200.04327
-101.15983 -58.704884 -200.37901
-87.473358 -51.689693 -202.4304
-69.732346 -50.193584 -205.32362
-49.926895 -49.968002 -208.20071
-31.083851 -50.400784 -206.31639
-17.038816 -58.01162 -200.05611
17.602919 -58.303932 -200.14542
32.012333 -56.509262 -200.89742
49.91172 -53.588779 -201.44777
70.950378 -53.928028 -201.29453
81.932487 -51.302624 -200.52611
-84.057961 -37.323135 -200.82196
-69.667046 -37.103519 -201.03003
-48.277088 -30.907351 -204.64709
-32.518078 -30.539204 -205.58493
-45.219154 -10.488846 -204.17422
-31.816103 -8.9835634 -204.05898
-15.666905 -2.3028264 -201.28978
-43.419044 5.4078169 -202.03346
-30.546753 9.1079712 -203.804
-11.864846 6.7350769 -202.55157
271.04684 99.233337 -200.43965
-25.832335 115.42152 -209.26869
-10.149895 109.20287 -210.65839
11.091106 110.69934 -211.04173
23.370893 116.09604 -206.15421
253.95695 114.76295 -202.314
270.20596 110.26234 -205.19904
287.17886 113.4241 -206.09218
-43.69104 134.6442 -204.22609
-33.105766 128.35754 -212.57159
17.68919 127.34988 -218.35164
28.453449 131.45041 -209.09592
237.7374 134.92986 -201.19719
250.82153 130.05728 -206.4366
269.34897 130.33147 -213.28589
291.32669 126.44792 -214.01581
304.58582 133.59045 -209.15601
-303.22147 159.0318 -200.38306
-289.96381 158.27576 -200.55038
-273.6355 158.52292 -200.30544
-61.528515 156.50107 -201.93457
-49.499928 150.41948 -209.38075
-36.996792 146.53088 -217.44936
32.898331 149.79787 -212.69714
43.949097 153.04834 -204.4062
237.06021 150.1266 -201.64438
250.04697 150.32318 -210.67151
266.82806 143.04811 -218.82462
280.2442 140.44168 -219.29836
314.16605 147.77377 -210.91672
323.44427 156.437 -206.58719
-321.69366 177.66734 -201.79283
-309.39081 171.36029 -205.46301
-290.1015 169.93616 -206.4809
-272.50583 170.4317 -203.89131
-65.018906 170.93365 -205.23849
-52.214172 169.1524 -214.451
-39.841034 165.3772 -219.81464
36.547962 169.61015 -217.42647
48.669991 170.83888 -208.32999
60.093159 179.24713 -200.81607
237.67044 162.46223 -201.0538
250.39597 168.65926 -213.03828
332.3916 168.25308 -210.78818
341.15982 178.39154 -209.00145
-327.45679 191.74586 -207.95734
-310.86356 188.20435 -215.15218
-289.27335 189.34689 -214.67345
-271.22156 190.50632 -206.89995
-66.676788 189.97298 -206.63696
-54.871887 189.7708 -216.71767
37.38871 188.29929 -218.83945
50.655754 189.6893 -211.98596
61.397144 192.13258 -201.96191
252.92401 189.24657 -213.66742
261.07697 187.14079 -219.11565
347.69922 189.92056 -210.26479
-345.15469 213.47534 -207.13568
-334.72745 206.26657 -213.54854
-284.8443 206.01918 -218.14554
-271.24106 206.95695 -211.24658
-258.9545 206.51018 -201.03264
-65.052475 208.62488 -205.23817
-51.028637 211.27043 -214.30484
-34.989136 212.38977 -218.69261
19.863832 219.22406 -219.68893
33.254444 212.30688 -216.3954
49.062366 209.94617 -208.87775
61.172382 204.03955 -201.2524
255.03888 219.83685 -214.90613
355.74466 208.99168 -209.26854
361.3624 216.21248 -216.77345
-361.35687 236.87276 -204.06268
-352.763 228.87462 -211.29721
-283.44373 226.6451 -216.81355
-271.95203 231.98407 -203.6105
-62.995567 231.07074 -203.24947
-52.759304 229.3022 -213.12044
19.945873 220.12344 -219.58473
30.906116 225.32045 -218.18962
51.538242 230.29201 -210.20554
60.771423 238.88962 -201.88893
250.66273 229.26813 -210.22057
261.85626 225.3042 -217.8551
357.92004 229.19029 -204.49356
362.25305 230.65158 -214.22284
-363.34207 250.15279 -208.3838
-357.61877 247.64392 -217.28905
-285.44199 246.58183 -215.27818
-272.50616 247.49319 -207.64496
-63.055363 248.93904 -204.4417
-55.856987 250.92778 -214.56717
37.559494 241.56818 -216.14436
54.067741 250.15813 -212.56767
61.371674 246.5282 -203.01091
237.57214 252.66946 -203.35176
247.19827 248.71027 -211.62161
-362.5538 265.68808 -208.83347
-358.73495 267.77689 -217.66302
-269.29578 271.3844 -203.62421
-61.601475 263.38 -201.83466
-51.444576 270.53412 -210.65341
-39.631775 278.2959 -219.6051
38.616791 276.26297 -218.00235
50.151226 270.17532 -210.16747
61.104446 277.9682 -203.25084
239.06471 269.90677 -203.40938
247.77267 268.6264 -211.00729
-270.49371 282.25311 -203.19131
-47.003387 287.76382 -207.71654
-34.454365 293.01465 -215.96657
36.773464 283.88004 -217.85931
53.686504 285.04709 -212.94139
61.829559 284.09067 -204.45186
234.05725 282.10428 -200.27448
-40.227417 304.4863 -204.05403
-30.012581 305.01874 -210.99187
-18.90646 308.88217 -213.45569
96.015404 -383.64233 -185.53036
100.32061 -381.88733 -180.57602
73.400764 -367.01163 -197.14604
97.421722 -374.9436 -190.46356
103.84451 -367.70688 -186.54475
76.761253 -349.91071 -197.91692
89.176918 -345.58234 -189.48024
109.03111 -348.64871 -183.35548
77.574356 -332.66913 -199.06161
90.289078 -330.04279 -191.28339
104.44897 -330.60904 -181.65131
-126.23394 -308.48935 -185.43579
-113.94428 -308.17633 -195.035
79.24279 -317.27127 -199.55479
91.010048 -310.40131 -193.59171
104.15133 -308.9339 -184.03319
-127.18929 -289.76352 -186.64206
-115.47247 -290.54462 -196.5844
93.332146 -290.49106 -194.71187
106.42864 -289.37921 -185.32341
-128.31691 -269.70007 -188.22733
-117.57072 -271.53781 -198.09122
95.574379 -270.95816 -196.84238
107.94268 -269.6821 -186.82727
-129.38277 -249.62939 -189.70927
-119.23969 -252.03705 -199.26068
97.653816 -251.61601 -198.00478
109.12371 -249.65041 -188.77467
120.37153 -241.33115 -180.19711
-141.23044 -225.96364 -181.26962
-130.41725 -230.27045 -190.8138
-119.84493 -230.72969 -199.86081
99.258736 -230.97861 -199.4733
110.58446 -229.95572 -190.01407
120.98835 -227.96619 -180.65976
-142.37863 -209.78563 -182.27498
-130.188 -210.02538 -191.86072
-119.48267 -208.44899 -199.70943
99.904335 -219.75578 -199.89697
110.64184 -210.06033 -191.83717
121.41396 -209.42482 -182.00269
-142.64886 -193.00539 -181.46216
-130.65408 -189.75719 -191.21126
-119.08951 -189.60504 -199.64793
111.73208 -190.075 -191.79572
122.2513 -189.70801 -182.43408
-140.50569 -170.12511 -180.43744
-130.46034 -170.09209 -190.58731
-118.69672 -169.33913 -199.17723
113.89685 -170.14241 -192.74564
122.80878 -168.98326 -182.91722
-140.92401 -147.71062 -180.88089
-130.49063 -150.21568 -190.1501
-117.57733 -149.40656 -198.75684
95.802559 -145.38779 -198.75449
113.0115 -149.70297 -196.02968
123.59642 -148.93193 -185.56305
-141.49879 -129.32031 -181.54639
-130.13184 -129.86374 -190.35417
-117.20515 -131.6637 -198.20134
94.880005 -129.57184 -197.73485
109.96113 -129.80939 -194.17685
126.34858 -129.70273 -188.16006
-142.03014 -109.81427 -181.59061
-130.41248 -109.89072 -191.54662
-116.11515 -106.3502 -198.82462
93.531944 -109.4861 -197.53647
109.9028 -110.18566 -189.99319
128.83205 -109.54163 -187.74442
-142.10918 -90.373047 -182.76361
-130.14619 -89.983482 -191.2312
-116.99826 -92.187386 -198.15221
93.023422 -89.789474 -197.11555
110.00926 -89.994843 -187.62567
130.68297 -90.391335 -185.1987
140.35535 -82.583473 -181.53961
-142.25575 -72.345413 -181.82173
-129.95541 -69.958382 -190.46414
-109.97646 -64.609245 -199.09103
-97.858124 -60.526047 -199.38345
-20.864723 -63.148479 -199.64693
-9.5014553 -66.996025 -198.70828
5.1336775 -65.286705 -198.45506
91.560944 -69.494644 -196.55722
108.70296 -70.497467 -186.54306
133.99391 -71.741348 -183.12999
141.22382 -69.372833 -181.35324
-129.57535 -50.154076 -190.77383
-110.03511 -50.572357 -194.98457
-95.406258 -46.671268 -198.1588
-22.048178 -46.895145 -198.86044
-9.7707529 -49.598263 -195.65714
9.8395195 -49.745163 -195.86195
29.429876 -47.544865 -197.79958
50.119907 -44.633911 -198.69135
69.345688 -45.775841 -198.50409
91.350143 -50.378853 -195.42825
105.94566 -50.685467 -184.823
137.1613 -54.007717 -181.18196
141.69273 -52.598053 -180.6891
-131.23001 -30.586891 -186.08972
-107.41219 -30.168009 -187.83481
-90.975075 -29.152977 -195.86099
-70.199265 -27.636387 -196.34079
-56.506485 -26.135662 -198.38194
-22.857714 -29.459732 -197.25882
-10.399507 -29.653318 -190.99017
10.04634 -30.029917 -189.12849
30.16844 -30.247221 -192.45992
49.768974 -30.006514 -194.73445
70.448296 -30.032164 -192.56114
89.975403 -30.219776 -193.99287
102.83372 -30.355314 -184.59767
-136.59285 -13.13362 -182.65704
-106.3 -10.81965 -185.04745
-90.06839 -9.7950583 -187.33839
-70.353394 -9.9126997 -188.57858
-54.71096 -9.20749 -195.38368
-23.766584 -13.556454 -198.08116
-9.2413731 -10.410992 -192.55836
8.3613167 -10.462 -183.59726
30.179083 -10.419618 -185.07462
49.638222 -9.7493706 -188.19356
69.103188 -10.352856 -185.85602
90.317139 -10.824596 -187.78735
103.11794 -10.328612 -184.38008
-105.76807 4.7139397 -182.15666
-86.987717 5.8781099 -181.19572
-70.099258 10.131439 -183.54301
-51.625881 10.861432 -193.44751
-25.627979 17.859228 -195.82463
-7.2066941 10.201447 -197.22978
8.7739973 10.416379 -188.96227
34.304531 4.2600775 -181.26711
50.607277 8.620801 -183.23686
67.127144 9.1732206 -183.58511
95.755295 6.3124123 -183.19853
103.37676 8.3838434 -182.32503
-80.287399 21.79285 -180.1926
-67.957123 27.593254 -181.49942
-50.211201 29.980667 -189.10831
-31.453136 28.053152 -189.17079
-0.96368426 22.206142 -189.28062
11.025722 27.987556 -185.98216
22.641726 30.067341 -181.92398
55.665676 24.470358 -180.76471
65.524513 25.052414 -181.09204
-60.999962 42.24675 -180.50301
-50.823048 44.245354 -182.69649
-39.356628 40.624176 -181.78786
19.50614 40.563015 -180.13892
23.08235 41.005627 -180.31958
233.66487 75.544586 -181.8416
250.56236 73.739471 -183.39944
264.75073 75.531258 -184.09077
232.17874 90.747459 -186.5256
250.13457 89.891457 -190.8205
270.6665 89.594299 -191.89151
282.67169 96.015778 -187.22008
-285.38205 118.299 -180.84071
-271.64526 118.20605 -180.46318
-40.210129 119.72658 -180.47513
-29.116398 114.78133 -189.38319
-10.263584 107.79883 -189.75024
10.235403 108.811 -189.74397
25.57604 115.90033 -189.78014
219.73633 119.30923 -180.4967
230.09084 110.22351 -190.63414
247.99045 107.23743 -197.17664
264.11719 101.75916 -199.07721
291.16907 109.66687 -190.55347
-302.6748 136.36765 -183.48518
-289.54337 130.6586 -186.06012
-269.99734 130.0862 -185.50926
-253.67624 132.54648 -183.54665
-60.97089 138.7144 -181.3049
-48.70359 131.00948 -189.53519
-38.121803 121.79585 -193.24692
35.232502 127.82794 -191.17043
42.648777 136.35806 -187.38484
219.47842 130.02345 -180.40051
228.27835 128.58531 -192.78581
241.80878 124.03873 -199.42313
299.05734 121.78247 -192.38136
306.888 131.37706 -189.59953
-320.20584 159.76285 -180.57289
-309.19229 151.01584 -189.41348
-289.57748 148.9213 -195.46664
-269.84982 149.43559 -194.74734
-251.00229 150.41196 -188.22403
-66.36882 151.38782 -188.97946
-57.177692 143.48213 -194.77988
39.935051 140.18037 -199.91513
50.442413 149.67952 -190.41185
61.282085 158.92317 -182.14386
229.6761 148.78763 -195.71672
316.70361 143.52582 -191.08379
324.60638 153.06783 -190.15628
-325.2634 172.19049 -188.33563
-316.47467 164.27156 -194.39359
-262.85858 168.61121 -198.03679
-249.89308 169.90773 -190.69315
-80.383018 177.1037 -181.88029
-74.255028 169.19119 -190.92137
56.732727 165.7616 -195.24232
63.910534 171.20395 -187.96751
231.50072 163.3177 -195.49315
241.30363 174.93863 -197.97362
333.33334 169.62251 -189.88026
340.52487 178.59688 -198.70959
-341.87863 196.4131 -187.39624
-334.50067 187.4734 -191.5164
-261.46619 190.64128 -198.26231
-252.88846 189.00499 -191.46001
-80.840324 188.52203 -182.09921
-76.384239 190.08456 -191.73636
67.316643 189.86195 -190.25137
339.1012 182.0596 -186.94124
344.74304 190.39014 -190.4798
-348.81934 209.84656 -190.44427
-339.72501 200.15669 -199.84058
-261.19971 205.11165 -198.65463
-252.82262 208.5144 -190.24963
-80.338211 203.95016 -181.90086
-74.849976 210.40807 -190.77307
58.364391 216.00175 -197.91426
66.741364 209.82631 -189.9062
348.83322 211.65036 -191.78787
-361.15707 235.68509 -194.5088
-356.71082 228.12018 -188.67079
-263.24057 230.6396 -194.9574
-256.19208 233.18652 -186.93272
-72.904495 229.76732 -190.82739
57.756882 227.67744 -197.06592
65.599709 230.53194 -188.24411
239.01961 238.73703 -182.82784
243.67282 235.71736 -189.92975
351.48456 228.4599 -191.67586
-363.39334 250.22758 -191.42535
-358.89481 247.14439 -182.76135
-266.24509 243.72012 -196.81487
-255.61707 249.49333 -186.95065
-71.083153 250.2616 -190.31567
59.720184 258.56238 -199.3476
64.996498 250.10703 -189.73758
219.42047 258.55063 -180.75311
231.57875 250.85719 -188.46367
241.15004 242.98019 -196.0504
-362.99283 265.46786 -191.57205
-262.63684 268.59778 -197.52336
-252.54672 270.38235 -187.92284
-67.691612 269.12805 -190.1555
-59.107677 276.63376 -198.00615
58.460407 267.99637 -197.03555
64.486794 270.88855 -189.23035
218.18149 273.94058 -181.67464
227.39548 271.26218 -190.4534
-263.20422 283.87463 -197.43304
-249.81241 286.46115 -186.82214
-63.413815 280.62674 -193.13884
-55.418392 288.01834 -195.42398
65.06398 282.87195 -194.58711
213.91658 285.13376 -183.50435
225.86436 283.09695 -193.13074
99.153419 -384.09097 -179.70238
102.15877 -382.24744 -177.73856
124.75303 -381.71933 -165.86116
110.85876 -367.93292 -172.23067
124.68447 -371.04861 -163.03044
116.60551 -351.12198 -171.87599
122.34091 -347.30905 -164.19989
-147.43559 -320.07404 -163.4061
112.41299 -329.51825 -177.63174
124.78553 -329.71582 -168.43042
-148.05229 -309.60452 -165.91092
-135.5853 -309.59821 -175.70148
113.21082 -310.30264 -175.45851
127.23469 -310.01776 -167.12302
-147.51913 -290.06735 -166.54738
-136.99678 -290.34695 -176.6815
116.06337 -290.85007 -176.1447
127.06267 -289.4921 -166.6579
-147.50204 -269.71561 -167.98883
-137.9958 -271.20029 -178.03307
117.86095 -270.89401 -177.69402
127.54837 -269.70535 -167.85532
-148.41014 -249.7823 -169.22871
-139.11624 -252.73688 -179.06424
118.82301 -252.61241 -178.92908
128.16608 -249.57047 -169.40775
-150.0065 -230.2067 -170.06898
-139.72153 -239.18958 -179.56699
119.61958 -237.61581 -179.81653
129.48514 -229.89426 -170.00679
-160.57607 -205.80371 -160.94589
-152.97154 -210.13474 -171.12762
131.21532 -210.09322 -170.40631
140.28412 -204.64841 -160.41212
-162.26317 -188.10248 -164.04704
-152.72992 -190.05943 -174.48051
132.39818 -190.35657 -171.29926
141.34866 -189.30576 -161.35648
-164.51704 -169.53531 -166.00815
-149.6851 -170.10017 -174.75786
-139.98111 -169.20161 -179.98055
132.96306 -170.21962 -172.30244
142.20795 -169.06062 -162.67714
-166.76622 -149.88835 -165.52344
-149.78714 -149.87584 -171.57611
133.74283 -150.33771 -173.07797
143.76086 -149.4142 -163.26935
-167.86635 -130.06053 -163.48468
-150.51579 -130.12154 -170.15408
135.28181 -130.41455 -174.06204
144.63342 -129.57874 -164.38875
-171.53139 -111.52334 -161.36897
-150.89935 -109.73782 -171.19569
137.01892 -111.45086 -175.51788
145.48183 -109.94629 -165.48805
-174.63428 -96.529877 -160.20789
-151.51952 -90.242149 -170.49603
118.4445 -83.337555 -179.69072
135.79617 -92.184853 -178.16826
145.873 -89.692352 -168.12183
-150.57921 -69.984985 -170.66382
-139.7829 -62.249153 -179.90057
118.09296 -67.554359 -178.30536
124.93852 -68.289307 -176.99324
147.99728 -69.948784 -169.68973
-149.48987 -50.327789 -169.60904
-137.87985 -47.741386 -178.27704
115.39383 -48.769772 -176.01759
129.62579 -50.076294 -174.71463
150.14087 -50.055714 -170.01814
-148.92868 -30.20752 -166.65231
-137.62669 -28.772289 -176.20427
-112.51221 -21.217907 -179.74496
112.55045 -29.582277 -173.1396
132.54054 -31.325123 -171.65092
150.61847 -30.073252 -170.45425
160.08351 -26.981319 -160.3735
-146.19191 -10.475813 -165.08054
-139.04764 -10.244534 -175.41327
-113.63771 -7.5669403 -176.76251
-86.92955 -3.1411076 -179.9104
14.825296 -6.0237083 -179.09462
22.483692 -2.8286934 -178.94095
76.132988 -2.8729174 -178.9063
87.221252 -2.5152118 -179.5569
110.93137 -10.010437 -170.02893
122.50043 -10.520629 -162.57773
152.51868 -10.519925 -168.88295
160.90372 -7.0251465 -161.18793
-142.22299 8.658287 -164.11375
-134.95673 11.803913 -171.77574
-111.38564 11.567575 -174.02914
-91.126801 11.416784 -176.60434
-77.947136 16.959417 -179.66107
17.55447 6.5383544 -178.64275
28.671162 11.607316 -176.68987
42.950527 16.829458 -178.5652
76.594109 10.592408 -177.79158
89.587975 12.311767 -174.37129
110.31149 10.705235 -168.10878
128.82744 11.59313 -162.23486
151.59596 10.588015 -167.16605
162.35339 11.197775 -162.41154
-140.48448 24.798775 -161.57912
-131.46114 29.590364 -164.90469
-112.83714 28.747789 -167.33057
-87.100922 29.169254 -169.27946
-74.62912 34.806725 -177.66917
-32.892139 35.484455 -174.79805
10.036131 35.958569 -177.28654
31.629526 29.586735 -174.37383
48.227432 31.197409 -176.19493
72.461876 31.420256 -176.92299
90.652298 29.784719 -168.06395
108.26703 29.078154 -168.2493
127.74027 28.762503 -161.04846
149.15486 29.144646 -163.33932
163.84337 30.467402 -162.71107
230.15585 36.264889 -162.18181
242.02364 38.880878 -161.36
-131.02576 42.892006 -161.15295
-115.98275 42.321331 -161.48479
-80.986771 41.074547 -162.32559
-71.530243 49.817158 -171.74014
-49.649544 50.98595 -171.03987
-37.843864 42.496899 -173.06476
-10.549305 56.982536 -160.38487
16.911947 43.663803 -174.59679
30.632298 49.54607 -171.93442
50.070354 50.242348 -170.99878
68.533875 47.45702 -170.57045
84.221008 47.002502 -164.03532
106.63264 47.286503 -164.14145
120.486 40.652802 -160.08011
150.2477 42.834553 -160.4666
165.20764 46.598907 -160.66037
197.88622 57.527016 -160.27145
215.22754 54.965134 -161.72603
229.77818 50.88879 -167.94444
249.47491 51.760487 -168.05156
260.73822 58.830627 -163.69501
-265.60388 78.035881 -160.98308
-251.06987 77.377365 -160.69136
-237.02341 76.397316 -161.09454
-68.607521 65.256622 -165.21278
-58.015457 62.123264 -165.48601
-22.578327 66.778664 -160.02982
-9.6664267 66.554192 -160.57919
2.6032357 69.053581 -160.43401
36.685322 62.57478 -165.32216
50.131252 64.922386 -163.92332
79.383942 60.209045 -160.01228
197.42693 71.471413 -162.32314
210.84004 71.069237 -163.85466
227.83118 68.933708 -172.51823
249.78683 64.10125 -177.33081
267.10318 70.356926 -170.04489
-284.02939 95.067703 -164.15059
-270.15897 90.184875 -166.19554
-250.25966 89.970306 -164.9119
-234.86528 91.433517 -163.78101
-22.808361 94.729332 -161.45425
-9.6587105 91.511444 -163.67624
5.1596503 93.790848 -162.59105
197.22211 90.482277 -164.38901
210.43918 90.049782 -167.91585
225.30145 87.664177 -174.83247
276.69534 85.061874 -169.81525
283.08035 95.075996 -170.00993
-300.48724 118.51039 -164.21149
-290.37686 110.05872 -170.52281
-269.93903 108.93759 -175.61743
-250.08218 110.3327 -172.2401
-232.0591 110.83496 -166.31514
-43.229172 117.7048 -166.83966
-30.185295 110.10535 -169.54716
-10.766739 103.99597 -171.87897
11.059966 105.64473 -169.97395
27.155884 114.46571 -169.7616
197.4463 109.50758 -164.43291
209.77971 110.06379 -171.95129
221.10693 106.5816 -177.94849
293.10416 109.35597 -170.17123
300.86749 119.00637 -169.44052
-305.84024 131.04659 -169.39816
-297.09842 123.18069 -176.78505
-260.23993 120.47238 -179.75208
-246.79756 127.53804 -176.58714
-230.05598 130.12688 -168.52371
-62.094242 137.11702 -168.51413
-51.998711 127.59503 -170.65871
36.753544 123.81094 -170.94214
45.054932 133.91147 -169.71788
197.84221 127.71912 -162.0714
208.08978 129.66101 -172.36165
307.93878 129.57355 -170.19913
-321.73996 157.29424 -167.93709
-315.31024 147.77681 -171.04601
-242.22525 148.42702 -178.351
-229.29266 149.30827 -170.01512
-71.034782 149.49092 -170.27029
54.921803 147.06128 -170.6476
62.019398 156.6692 -168.94025
198.8139 140.34058 -160.24489
209.53214 148.99658 -168.9369
220.77373 144.82227 -179.08441
316.84756 147.38969 -168.16394
322.23355 154.72217 -174.31731
-328.54333 169.85939 -170.32396
-241.36629 170.1124 -178.19981
-231.2052 165.92416 -171.19069
-82.439919 172.24362 -169.01407
-78.488159 164.00565 -173.10971
67.913025 169.39194 -170.27086
214.16554 164.6501 -165.70047
318.86563 161.94865 -161.21072
327.47711 168.57204 -172.49838
-341.56021 196.18544 -174.64153
-336.63501 187.72227 -169.18465
-84.626038 189.97885 -170.39072
72.715492 189.98199 -170.19032
338.53632 189.10468 -173.80307
342.42081 195.78659 -174.71602
-345.38062 209.56741 -172.5529
-338.83115 205.44162 -162.24008
-246.45818 214.32687 -177.62491
-82.886299 210.02122 -169.97717
-79.479538 215.77924 -172.69917
73.758904 209.69057 -170.09544
339.64175 203.02122 -169.08092
342.52026 201.7379 -171.6803
-349.42508 232.67004 -170.8775
-81.462204 228.14607 -167.60432
-79.209526 232.35486 -173.40375
72.953377 229.90636 -170.3131
237.95326 237.73189 -172.03943
243.37199 231.56259 -174.66737
-360.34235 259.00125 -177.99094
-353.77112 250.61089 -170.17924
-246.66664 252.28017 -171.72632
-237.88704 258.29996 -163.97652
-81.572449 249.82025 -165.18974
-77.707588 249.90486 -174.18294
70.603729 250.16728 -170.02322
215.696 255.36053 -168.67949
228.46461 248.06325 -170.30635
-360.34045 260.32071 -179.07658
-243.11836 267.34995 -176.45689
-234.95563 270.87256 -167.75711
-84.666069 264.94196 -166.28001
-75.772018 268.93701 -176.7364
70.255341 269.93665 -169.82307
198.97018 279.29822 -160.53654
210.47112 269.96942 -170.4269
-241.18895 284.00198 -179.46468
-230.87366 286.39948 -169.30774
-218.02386 289.21432 -162.40276
-71.634613 280.53049 -177.71954
69.056618 280.95441 -164.79118
195.68396 286.30521 -165.01382
205.47661 284.0199 -173.04509
131.76372 -365.88489 -155.82057
119.95814 -354.15073 -159.9303
132.33667 -349.11023 -152.90842
141.65814 -349.711 -142.39923
-168.65962 -322.4487 -146.3338
-157.51459 -320.80545 -157.15199
133.5471 -330.34875 -151.71689
141.42593 -329.134 -141.91832
-167.25089 -310.28006 -148.12184
-157.63972 -310.0755 -157.98373
135.97482 -310.35999 -152.32452
141.73456 -309.04553 -142.86897
-167.23549 -289.63696 -147.66576
-157.58842 -289.76929 -157.46355
136.92389 -290.43967 -154.74414
142.33623 -289.19336 -144.57782
-167.20972 -270.15161 -147.77972
-157.63724 -269.90872 -157.78047
137.24243 -270.46216 -155.92661
143.40262 -269.51657 -145.95705
-167.2179 -249.86395 -148.31429
-158.31897 -250.5204 -158.09779
137.58467 -250.48286 -156.64354
144.23219 -249.77306 -147.17834
-167.73128 -229.80286 -149.03198
-159.0182 -231.88181 -158.78578
138.54817 -230.66754 -157.87962
145.4173 -229.5484 -148.28839
-168.90833 -210.06761 -149.74237
-159.84558 -216.00131 -159.87288
139.56761 -215.22906 -158.94446
146.89195 -209.89899 -149.77731
-170.7834 -190.02028 -149.84506
149.38799 -190.16727 -150.30803
-180.09081 -166.8299 -140.18016
-173.10045 -170.438 -149.92664
151.99089 -170.1098 -150.31628
160.44366 -162.8396 -140.56544
-181.02231 -147.59047 -141.35556
-175.40193 -150.24142 -150.77072
153.25323 -150.29202 -152.4286
161.86568 -148.17209 -142.06993
-181.7368 -128.545 -143.30937
-176.70354 -130.73332 -152.97641
-158.81821 -125.47029 -159.74203
154.70093 -130.54491 -153.79391
163.31348 -129.07913 -144.08858
-182.90587 -109.01746 -146.11745
-170.99413 -109.47878 -156.84563
-158.66191 -109.94848 -158.6786
155.63722 -110.33202 -155.5956
165.17833 -109.30125 -145.76724
-184.23024 -89.638985 -148.83643
-169.27383 -89.716125 -155.77602
-159.05208 -89.181305 -157.87297
156.38002 -90.518745 -156.81873
167.34608 -89.719429 -146.93581
-185.77702 -69.885017 -149.40831
-170.17336 -69.716682 -153.34178
-158.64864 -69.531731 -156.9422
157.42328 -70.164124 -157.61534
169.02693 -69.820915 -148.14386
180.56717 -60.625038 -140.49126
-187.12466 -50.095509 -148.89912
-169.2303 -50.078018 -149.98456
-158.45282 -49.409718 -155.89037
158.64935 -51.213707 -158.23602
169.70085 -49.838486 -149.67258
182.64563 -47.261219 -141.26151
-188.87607 -29.866648 -147.83191
-166.35619 -31.254732 -147.95546
-158.58269 -30.188799 -155.88393
159.25224 -32.377953 -159.24736
169.63251 -29.979729 -151.18631
185.70926 -29.208183 -142.46101
-189.94695 -9.8131027 -147.27032
-163.07562 -10.04128 -146.93042
-156.94937 -8.7272482 -156.94089
122.58192 -5.3001513 -159.25066
159.8954 -16.651134 -159.87598
169.47914 -10.414964 -151.11902
189.62386 -9.5273104 -143.616
206.47432 -3.59057 -141.11642
-200.11371 15.720189 -140.97913
-190.98969 10.141006 -146.93655
-165.90994 10.100782 -146.83263
-152.17146 10.937753 -156.55873
123.21266 11.268642 -158.15265
169.49596 10.112392 -150.01553
190.63568 10.272377 -146.72118
210.533 9.9690266 -145.43535
226.90463 13.188554 -146.25534
-245.42902 35.898235 -142.15361
-233.46883 34.397335 -141.89885
-200.10869 31.8312 -142.79214
-191.39911 30.168268 -146.45448
-167.19653 30.082239 -145.75536
-149.74197 30.238663 -153.98109
-131.5033 37.371136 -159.116
-109.79677 37.69276 -158.9332
-93.093414 38.247433 -158.79128
84.917755 39.477142 -159.49612
110.95164 35.139881 -158.45821
127.13877 31.459532 -154.57855
151.64212 36.24242 -159.30122
169.90506 30.380714 -149.44247
190.49339 30.32646 -149.7365
209.91446 29.635748 -151.33455
230.69341 27.302311 -153.73198
244.19876 34.329094 -149.78751
-265.18735 54.601364 -144.69434
-249.77501 49.937958 -147.86525
-230.52408 50.741936 -145.82399
-205.10403 52.441757 -142.94315
-191.01401 49.895897 -145.18312
-165.97235 49.532764 -145.28539
-149.14667 50.018902 -148.75934
-130.40985 50.585011 -155.16429
-115.56397 50.02652 -154.77068
-87.834457 49.163647 -151.24081
-77.375336 54.152473 -154.35799
-52.513039 52.035007 -153.80646
-28.53109 52.570736 -158.0795
-11.787862 54.4841 -159.09137
1.7672834 57.636967 -158.33516
36.735065 58.998375 -155.64034
59.943699 59.961155 -159.41838
61.197472 57.984127 -157.73979
85.165527 51.371029 -155.94104
109.33725 51.318314 -156.0737
130.65428 50.260536 -152.71568
149.63226 49.889 -155.93712
169.67365 50.402145 -150.68179
190.80533 49.851849 -152.88727
208.30667 48.776817 -156.32631
222.1929 47.123711 -158.37607
253.91595 49.20438 -150.12952
260.49725 58.265652 -154.11189
-281.0723 77.779114 -146.43141
-271.18726 69.777451 -151.29514
-249.90637 68.841766 -156.62727
-230.25357 69.586754 -150.91722
-209.48174 71.287651 -142.88847
-194.07304 69.856506 -145.66597
-163.97488 68.525589 -143.01123
-151.06108 68.419777 -143.03384
-130.85307 68.875366 -145.82367
-118.40623 63.933632 -145.14763
-82.481293 71.373581 -146.31969
-70.111671 70.181862 -150.6675
-55.189823 66.081589 -153.28783
-28.186989 71.763878 -156.58601
-10.601514 71.333344 -159.0213
9.2736483 71.973824 -157.09772
32.025612 69.381325 -153.89238
51.007107 71.538803 -151.05769
66.65612 70.166084 -148.92265
82.628754 67.684059 -148.39738
109.92612 69.959045 -150.14534
130.50903 69.512909 -147.83949
148.0058 68.521713 -148.34195
168.58481 69.382187 -150.88594
188.89194 69.798279 -153.84904
207.52632 64.810181 -158.75722
259.75931 60.454739 -142.57628
266.32373 69.764534 -150.10645
-286.52762 89.924652 -150.29457
-277.60202 81.739021 -157.97925
-228.35666 89.513054 -154.1837
-210.68976 89.870941 -145.09363
-194.81812 89.839645 -145.5493
-161.77393 82.202431 -140.19894
-157.53897 80.287888 -140.1221
-135.04124 80.664429 -140.30356
-83.025322 81.735924 -142.14772
-75.595329 82.257721 -143.25897
-48.032192 90.977699 -146.98563
-31.055923 89.750702 -156.31757
-10.088731 83.258438 -159.29503
12.034351 87.987236 -156.66132
29.070704 90.688751 -147.50612
53.425652 83.015686 -142.25916
61.330154 80.154282 -141.0174
112.69728 82.485924 -142.80696
130.1734 84.217911 -143.04938
149.61975 82.663765 -142.0034
168.41689 89.935654 -148.46799
187.74207 90.224083 -154.8568
276.37756 85.79483 -149.07782
282.93643 95.3694 -151.02943
-301.44913 117.50808 -149.01961
-295.94946 107.72634 -150.23216
-224.87433 107.89963 -157.23634
-210.614 110.03551 -148.13879
-194.49858 109.84665 -144.31509
-60.525776 117.19659 -140.49895
-49.847599 110.77461 -149.18604
-35.338726 104.96671 -156.73314
17.913454 103.38849 -158.48041
31.245092 110.18135 -150.41763
41.014278 117.44431 -142.3465
172.71648 108.91423 -146.24187
186.72517 109.98891 -154.55373
292.1478 109.70562 -149.99507
300.29706 119.64874 -156.31374
-308.11984 130.07545 -150.16306
-221.92935 128.59056 -158.18338
-210.78818 129.84259 -149.39098
-196.9127 127.38318 -142.23727
-64.552956 132.42401 -148.48566
-56.02375 124.41093 -153.13766
38.450554 121.62534 -154.13708
46.856247 130.90904 -149.59271
177.03008 126.83735 -143.99062
188.69284 130.50821 -151.26385
298.18579 125.00047 -144.40152
304.02667 131.39655 -151.96268
-321.65393 156.25032 -151.73238
-316.9426 146.79529 -149.49742
-221.64148 149.28883 -157.867
-211.58232 148.5025 -147.44449
-80.21344 159.21054 -147.83937
-74.257278 149.14401 -150.45465
56.321629 146.49284 -150.08897
62.637653 155.2827 -149.35709
194.28592 146.77391 -147.16219
202.58214 154.64047 -153.53568
311.40469 149.03571 -154.50441
-325.60126 169.82147 -150.56355
-319.64651 160.38557 -140.09383
-210.54623 160.24892 -144.35519
-84.843109 170.79654 -148.58372
-79.424568 160.43214 -153.80737
70.269211 169.83759 -149.85634
207.0871 162.63972 -152.37131
316.0119 162.53 -156.0218
-330.7045 187.22708 -152.97241
-85.060768 190.09149 -150.37331
75.994362 189.69398 -150.30605
-334.93274 210.89008 -154.30179
-83.294395 210.58461 -150.07523
75.543755 209.59303 -150.2094
-343.31073 235.37982 -156.47649
-335.38086 229.97427 -150.34947
-83.442871 230.56036 -149.98192
-79.349396 229.13957 -155.47911
73.587677 230.46358 -149.49216
-346.28433 248.82811 -158.68779
-242.44994 254.04121 -155.40257
-235.88722 257.96115 -150.04871
-86.637924 250.08408 -150.68054
-78.358253 242.15381 -156.63425
74.506264 248.82127 -150.01395
212.70619 254.13356 -149.38455
225.69098 249.31888 -151.12497
-226.35918 267.7402 -151.09621
-216.86952 274.58801 -143.63655
-88.374474 263.77692 -155.81451
75.343674 269.17856 -153.93652
80.028305 276.40671 -151.6992
195.68707 274.40176 -146.6725
203.70737 267.55554 -151.82623
-222.80467 282.80753 -156.76994
-210.38438 286.84906 -149.50797
-198.91998 287.88708 -142.36604
75.395111 280.47321 -150.09123
82.241745 283.22543 -140.85419
178.48012 293.91626 -142.36829
187.80077 286.86615 -150.4368
-208.74258 314.28351 -143.78616
177.13194 311.44568 -142.90741
185.16724 309.46085 -150.33028
-210.99742 325.49225 -142.47841
177.37128 322.73306 -143.22047
181.55542 322.71915 -146.05005
150.93216 -360.42825 -122.66732
147.51927 -349.83514 -129.98497
-182.37756 -324.48596 -125.62301
-177.10049 -324.09158 -134.60718
147.74051 -330.14902 -129.98746
-182.59317 -310.25656 -125.22904
-176.99176 -310.23849 -135.23201
148.25822 -309.8934 -130.61073
-182.97975 -289.59946 -125.7833
-176.82991 -290.15497 -135.54869
149.59805 -289.95352 -130.61638
-183.48973 -270.22034 -125.56648
-176.9052 -270.3046 -135.62999
151.80421 -269.80173 -130.19835
-183.99094 -249.60352 -126.29917
-177.12671 -250.3607 -136.07103
154.04712 -250.09914 -130.07956
160.43964 -241.72733 -120.80586
-184.97649 -229.72076 -126.8583
-177.68527 -230.45175 -136.70413
155.27446 -230.63541 -132.07274
161.32475 -227.28783 -122.4973
-185.90167 -209.70035 -127.73035
-178.30724 -210.63977 -137.77502
156.79721 -210.50949 -134.66812
162.89891 -209.0231 -124.70315
-186.7417 -189.90515 -128.77307
-178.87994 -192.3857 -138.71181
158.18935 -191.85748 -136.68678
164.80273 -189.40054 -127.22765
-187.85287 -169.82112 -129.54994
-179.60693 -171.35376 -139.63158
159.29135 -174.65082 -138.95102
167.31441 -169.7832 -128.8903
-200.69426 -141.87192 -120.44249
-189.89026 -149.93631 -129.60899
170.26244 -150.19019 -130.07005
181.59589 -144.86948 -121.06735
-201.53874 -126.64655 -121.06784
-191.25114 -130.1111 -130.38908
172.90497 -130.54436 -131.8425
184.20743 -128.7218 -123.08176
-204.25096 -108.47262 -121.84818
-192.58249 -110.37345 -131.44078
174.7659 -110.46002 -134.76515
186.8208 -109.49883 -126.05615
-207.2722 -89.034866 -123.02116
-193.89572 -90.388359 -132.68243
176.40903 -91.353638 -137.12042
188.98041 -89.355225 -128.92325
-220.06157 -64.017075 -120.03457
-209.36864 -69.878296 -124.33351
-195.07292 -70.245262 -134.11845
178.56778 -73.500351 -138.77621
191.06021 -69.626244 -131.37732
-220.8839 -46.029663 -121.17517
-209.61328 -49.733772 -126.49795
-196.36569 -50.530365 -135.49533
192.50803 -50.749863 -134.72301
201.60928 -47.18409 -124.65514
-222.32628 -28.731491 -122.27795
-209.68539 -29.976463 -128.4333
-197.72885 -30.806015 -137.02878
195.22881 -31.546024 -137.38434
204.83983 -28.685404 -128.27773
-228.03613 -8.1005592 -124.60175
-209.1954 -10.003335 -130.73154
-198.84451 -11.473731 -138.11235
-165.38182 -6.6296635 -139.76213
197.82843 -16.800131 -139.16406
211.47562 -11.033973 -132.59659
221.42926 -2.5073922 -129.4648
-244.56709 13.458434 -126.35687
-230.38597 9.5710726 -131.19928
-209.2196 9.8498545 -131.99712
-199.72174 11.20885 -136.7948
-165.37186 11.818254 -138.93346
219.45596 0.10282034 -139.73386
228.64027 10.029965 -130.49892
-260.60269 38.346153 -129.00758
-252.06573 29.323441 -131.54718
-227.60663 27.882633 -137.32014
-210.31461 30.144346 -133.56487
-199.00322 30.852436 -135.26073
-165.92361 30.004557 -138.7019
236.95404 25.164745 -129.01509
242.79909 34.828465 -131.40369
-266.17175 49.729366 -130.4229
-258.12643 41.11441 -139.01418
-220.52661 48.046146 -138.67056
-211.36967 49.777008 -136.82603
-197.66252 50.818066 -135.38817
-166.38065 50.896954 -136.60765
-83.421074 59.432827 -138.49672
251.15993 49.989006 -130.36748
-280.84747 78.061592 -131.35493
-275.79959 68.484543 -129.66167
-212.28001 65.766304 -138.61378
-189.99025 71.03434 -136.62712
-166.0825 73.008141 -133.83971
-146.35518 73.817787 -136.77937
-127.49282 77.038948 -137.72223
-87.500908 71.524803 -133.17741
-68.501923 71.549911 -137.09387
50.32505 75.251602 -137.01695
62.232613 79.004196 -138.45149
84.814682 76.420372 -137.68303
103.78672 78.114098 -136.29172
159.61905 79.995964 -139.6434
257.84686 63.887524 -126.67079
264.31842 72.177223 -131.53046
-286.43976 89.93737 -129.75735
-214.07683 80.199684 -139.91068
-189.14868 90.19474 -133.52521
-166.16667 90.901558 -131.54662
-152.15558 90.487923 -131.83722
-133.0751 88.92318 -130.33142
-90.035164 85.078606 -130.00198
-68.632843 91.040688 -131.63115
-57.707943 92.916199 -137.25206
38.982121 94.354988 -138.42444
49.10799 92.284119 -131.50861
63.544273 85.904427 -130.93126
108.35038 89.495361 -131.47678
133.33241 92.81971 -134.94701
151.9101 93.335869 -135.2294
161.51221 94.354248 -138.00847
273.35068 89.190239 -129.88664
281.3967 97.42997 -137.14198
-301.10449 117.88107 -134.93039
-295.54474 108.92513 -129.47659
-190.53984 110.09425 -130.76831
-170.42201 105.22427 -123.77641
-155.01405 102.87508 -123.29298
-133.92638 101.2775 -121.25932
-65.272881 110.13445 -129.96854
-59.046192 106.05363 -138.77292
38.969395 108.85849 -139.17474
46.45681 109.95181 -129.66647
135.15173 104.02404 -125.65758
152.19165 104.59928 -129.18703
166.34477 111.99355 -132.63522
278.56635 103.09504 -126.04227
286.64478 109.72093 -134.54671
-305.62283 130.00415 -130.58025
-299.26923 122.49994 -121.57976
-200.51688 139.70216 -139.61421
-194.26146 129.82413 -130.01414
-68.816353 129.8783 -130.80016
51.727459 130.13155 -131.16725
174.6564 128.53889 -130.04047
180.7404 137.4355 -128.96855
295.47565 128.06351 -137.8147
300.39578 139.21877 -139.53796
-312.8761 150.18002 -131.32372
-203.04184 151.21327 -136.36737
-197.12909 144.8502 -129.31824
-74.253944 149.79729 -129.89401
57.848015 144.96275 -130.067
62.445503 154.62743 -131.41202
179.66956 140.72461 -126.91733
186.67223 148.04749 -132.26064
-320.60187 168.90353 -138.46086
-317.61615 164.58 -134.69485
-88.092285 173.23477 -131.71878
-76.756432 165.84935 -128.21887
71.185081 170.85391 -129.62697
80.846947 175.46721 -123.97354
-319.27274 181.21216 -136.81467
-85.711624 187.75769 -127.39264
-75.82988 195.46332 -127.48261
72.268105 188.9565 -130.75432
-87.184219 211.06288 -128.67108
-78.363289 205.57428 -125.57484
72.271904 210.6684 -129.93364
-101.30965 229.33894 -124.63461
-91.534492 228.55759 -131.62512
73.860863 229.60516 -129.51923
-230.58781 258.25012 -132.46106
-88.906639 243.44173 -135.64008
76.729828 250.69627 -134.72736
80.279785 258.935 -133.01085
213.75703 254.66011 -131.4847
222.2395 255.25653 -130.14728
-223.13315 262.23013 -130.1351
-213.13214 272.2485 -129.83965
78.482643 268.10767 -135.75319
81.355721 272.94684 -134.07162
191.4556 273.79202 -129.85435
204.48466 264.19604 -128.76906
-203.92201 282.87131 -131.45921
-192.03479 288.27609 -127.55266
79.900383 280.03809 -130.33693
82.105537 282.10684 -138.47734
173.40125 291.59836 -128.74532
182.65605 283.01718 -133.40923
-202.65826 316.56271 -136.85709
-190.58118 311.5235 -126.97053
157.49661 312.40063 -123.39776
167.26805 309.06671 -130.8172
-204.46547 326.74295 -137.44203
-190.20831 326.18573 -127.45719
-179.88551 328.67639 -120.01973
153.30879 323.36362 -123.76935
168.72137 322.65903 -134.30914
154.14456 -361.8327 -110.89436
154.47659 -349.70932 -111.68313
160.18457 -340.41962 -105.38274
155.79558 -329.98212 -110.39342
160.15701 -325.68066 -101.84233
-185.3709 -306.742 -118.94256
156.73274 -310.08902 -111.43074
160.51712 -308.45511 -102.89826
-187.12489 -289.18451 -117.69875
157.32838 -290.81357 -113.58664
161.9722 -288.61386 -104.1135
-189.08202 -269.27945 -116.46262
158.36322 -271.13962 -115.8576
163.28966 -268.50925 -106.61761
-191.30179 -249.63943 -115.49101
159.4221 -253.41859 -118.70402
164.99963 -249.70523 -109.25996
-193.75504 -229.55342 -114.94794
168.08636 -230.041 -110.11245
-203.49443 -206.13898 -107.18011
-195.68474 -210.49229 -114.72369
172.25543 -210.20961 -110.31287
180.44391 -202.01364 -100.78156
-205.93579 -189.69543 -108.14525
-196.48178 -190.33545 -116.6177
174.60774 -190.9276 -113.6011
181.48621 -188.03729 -104.54687
-208.03001 -169.50803 -110.06863
-197.45091 -171.23604 -117.84034
176.98567 -172.0674 -116.92612
183.55028 -168.94771 -108.549
-209.3732 -149.61237 -112.45107
-198.72955 -152.63588 -118.68895
179.24503 -156.37376 -119.1244
185.97957 -149.88254 -111.32724
-220.15613 -131.00607 -107.39165
-211.93877 -130.21237 -112.98515
-199.26132 -138.61584 -119.78276
189.2099 -130.00471 -110.91459
-215.29829 -110.25931 -112.11115
192.34966 -109.89201 -109.91931
-220.70451 -85.386322 -106.4306
-217.74123 -92.195374 -113.52685
195.69499 -90.088539 -109.87914
-222.58511 -69.38987 -108.29385
-219.15425 -72.574806 -118.10213
198.50119 -73.103455 -112.4664
200.53523 -65.066628 -111.48197
-225.34988 -49.910355 -110.13622
-219.88051 -57.874317 -119.82178
197.90851 -45.813042 -104.57845
202.68657 -49.876438 -113.77249
-228.68411 -29.587999 -111.19565
199.5434 -38.166256 -100.93181
205.49406 -29.668295 -110.37708
-240.24431 -0.94839454 -112.73605
-234.99185 -10.548696 -111.20912
213.18546 -10.36497 -109.93605
220.7244 -1.1745906 -117.75852
-244.95514 10.376499 -110.28729
-239.62297 0.85114181 -107.85542
218.25729 4.2114272 -104.98782
224.34094 11.662194 -111.39204
-260.27444 39.227787 -117.171
-253.88985 29.86862 -109.78765
232.62944 29.430481 -109.88568
240.83655 38.211166 -117.88432
-264.19812 51.422741 -110.96931
-258.3992 43.092083 -104.10827
237.59651 45.221035 -104.84526
244.90036 51.805717 -112.15392
-280.07788 79.950508 -119.55608
-271.77698 69.598831 -110.18053
252.20648 68.996414 -110.35103
261.40912 77.713387 -117.44658
-283.30603 92.944901 -114.10119
-277.36914 85.42173 -108.21582
-150.84833 99.169846 -119.4861
-129.541 97.768059 -116.38803
-97.391228 87.819939 -119.49811
-73.206947 98.441284 -114.72478
57.156834 97.735184 -117.00539
61.356308 97.838081 -111.76442
104.38437 97.26078 -116.44721
257.26828 83.297981 -108.3501
265.31412 88.192841 -116.03335
-289.91858 109.46696 -113.49394
-169.36621 110.55498 -117.19593
-154.62709 109.99327 -112.37474
-132.79845 105.13705 -110.99355
-71.476585 109.94775 -109.18246
55.112236 111.75394 -112.28454
62.030342 107.71573 -105.25761
105.84288 104.41297 -107.24543
136.62221 112.08277 -112.79446
141.77657 116.93138 -112.04787
164.65788 119.71294 -119.65535
271.22098 100.42857 -117.39727
-301.07925 135.02075 -117.81686
-297.43793 127.76964 -114.93789
-191.4984 132.29059 -118.36399
-68.525803 129.59337 -110.14349
51.760273 129.52606 -109.43414
139.31114 121.56356 -103.30704
141.29329 123.2234 -105.94975
170.67844 128.44888 -118.05076
181.32271 138.38086 -119.4057
-303.22095 148.49571 -116.50693
-299.44122 140.37823 -112.72279
-70.243492 149.99709 -110.00216
53.601753 149.56442 -109.95101
60.188374 158.68123 -118.79721
184.11472 145.47966 -117.44011
-88.824516 177.72604 -117.78198
-73.194923 169.23721 -109.07204
55.096653 167.37451 -106.7226
72.656212 175.50894 -114.2721
80.643814 177.17346 -117.60151
-92.104225 191.74232 -115.12076
-75.947327 180.6077 -102.6035
59.501678 196.61385 -114.23866
71.131981 191.18935 -108.34174
-100.61222 211.63264 -107.79266
-94.483574 208.34093 -114.36021
-79.742805 208.84009 -119.80611
59.60416 200.19431 -113.73682
70.613747 209.52473 -109.09158
-101.88907 224.6933 -114.25433
-97.307816 223.52736 -116.64587
76.236794 226.96893 -111.33154
82.656792 231.74582 -109.16154
219.20782 254.93549 -119.86198
-223.38094 266.69171 -110.94888
-209.95966 273.2825 -110.41504
-190.21315 279.75027 -105.98544
191.48631 276.62927 -111.58066
207.57999 270.96246 -110.10506
-201.26105 281.22107 -113.34254
-188.12181 284.73822 -111.47905
-175.92491 293.90677 -107.32883
158.80345 298.68716 -105.37478
170.93689 290.7244 -110.16434
185.11636 281.10873 -105.05794
-182.15753 306.54205 -117.71939
-174.05736 309.42255 -110.52655
138.32327 315.50153 -104.16055
150.45328 309.26102 -108.79847
161.73346 303.05231 -116.76579
-180.63927 325.62802 -119.54507
-176.4071 325.39462 -115.46211
134.5619 330.12933 -107.67493
145.31898 327.02805 -114.92552
130.61464 342.51358 -106.48273
141.5903 340.1106 -117.0226
158.5192 -322.81488 -99.645233
159.70102 -315.3877 -99.108795
161.59888 -306.24512 -99.183334
164.52423 -289.28745 -98.317101
167.8015 -269.46436 -97.593109
171.38036 -249.52524 -96.899445
175.20016 -229.82605 -96.24514
178.43182 -210.85707 -95.0989
180.71869 -204.80376 -96.26136
-212.25557 -194.7865 -99.258698
177.89197 -189.33852 -87.844009
181.20158 -189.7758 -95.930122
179.06438 -173.54257 -86.68145
181.90814 -168.2578 -92.719505
184.51929 -149.72006 -90.686066
188.41899 -130.74222 -92.398575
-217.8838 -108.75198 -99.381294
192.57968 -110.7698 -95.912483
-221.62851 -87.736618 -98.270813
-219.56917 -97.18438 -98.460274
195.13118 -92.752937 -98.033546
-225.6024 -70.806549 -98.132187
179.66757 -70.013687 -81.780617
184.09221 -63.715015 -85.285355
-225.10446 -50.321495 -95.724213
-216.96677 -45.313961 -83.706787
190.15134 -49.493477 -89.251495
-224.96086 -29.300722 -91.377975
-218.99776 -38.115627 -83.803528
195.55812 -31.283888 -88.361137
201.89365 -24.262621 -95.642044
-231.99762 -9.9629688 -92.297935
198.26309 -16.531733 -83.174332
206.33261 -9.7097521 -92.641853
-242.46709 13.696682 -95.394409
-237.66383 4.9076376 -92.083931
213.69374 9.2635908 -90.553467
221.70233 16.640865 -98.289398
-249.0757 29.125324 -95.406975
218.76987 24.566631 -87.239128
225.21875 31.289169 -92.729469
-261.44153 57.065613 -98.740562
-256.81512 47.292088 -96.988678
231.59837 50.039867 -89.875023
240.46133 58.083084 -99.276817
-265.52432 66.379105 -99.43251
236.52132 67.890427 -85.690269
243.86691 71.277107 -94.653809
246.15984 81.32151 -92.440918
-157.46573 117.44057 -98.249611
-135.02733 111.96671 -93.195274
-80.365982 105.27523 -97.82869
-75.246979 113.80257 -95.638336
59.737854 119.75403 -99.815598
64.879829 116.06172 -95.861351
107.56661 110.53248 -96.490875
139.77859 119.53684 -90.614044
142.43617 118.6396 -94.695496
-166.19002 123.96713 -94.867462
-158.88892 121.35735 -96.196388
-65.186371 130.68088 -90.981277
49.65712 132.30725 -92.825485
64.38414 123.03827 -91.243767
138.86411 124.29408 -92.273102
140.49326 123.46484 -95.151169
-66.33728 149.83771 -89.279457
48.688522 149.45728 -88.508934
-71.358788 170.04755 -89.876434
52.943054 169.07263 -89.333168
-75.214119 182.3109 -89.991989
54.209957 183.23149 -82.961067
77.106133 194.80461 -96.946121
77.224792 209.87143 -95.357834
81.400055 212.33672 -91.092041
77.498642 224.08011 -97.176811
82.913147 226.69595 -95.736366
-221.78185 271.14075 -94.303314
-211.03748 275.82001 -91.157318
-193.53236 278.83304 -89.139465
199.54929 279.92822 -99.975296
201.7634 279.20129 -99.574249
-206.90698 280.46609 -86.851036
-186.92076 282.7836 -90.96682
-172.84659 293.26141 -89.296852
167.63414 295.32736 -92.500511
190.66454 284.5997 -94.573883
203.47911 283.18295 -93.344368
-163.87981 303.07388 -89.642906
-154.63446 309.20016 -86.455406
-137.02213 319.24008 -81.134644
133.45776 316.228 -90.03624
148.73795 307.65973 -93.503914
162.66196 301.41022 -93.015556
-142.70221 328.22202 -84.257729
-134.1304 326.22455 -82.807167
116.39241 336.32361 -82.966774
125.76943 327.65842 -90.061996
111.46253 350.98428 -86.843399
122.90598 348.72711 -94.909729
109.76395 364.37646 -91.591606
173.54382 -66.353271 -69.004738
180.61282 -64.159889 -78.821884
176.27295 -52.481766 -66.599548
182.93547 -46.861977 -74.625702
179.16022 -37.121395 -62.083225
186.23932 -30.954763 -70.896469
193.26234 -11.742635 -70.142578
201.45779 -0.33529463 -78.759743
204.10594 2.0238111 -78.686714
219.09818 39.485298 -77.372681
220.89471 38.020267 -79.471786
219.94543 49.673592 -73.023926
223.77425 52.342918 -75.279823
231.27756 69.999611 -75.716057
-65.895874 134.76314 -72.543213
-59.975796 131.27875 -78.095619
52.199665 136.47168 -72.863548
-68.023399 149.76826 -69.666512
53.439014 149.95372 -71.252861
-69.196297 169.91367 -70.0942
53.798454 170.03902 -71.085251
-70.212753 188.97462 -68.572205
53.952454 189.61482 -69.136642
-70.691017 203.8372 -62.888859
53.39949 205.4213 -63.898758
-204.12582 279.57202 -78.710159
-196.95415 278.9982 -77.757973
-207.11285 284.43069 -72.412834
-188.82857 286.75449 -71.554337
-170.558 295.43494 -71.133224
-159.55284 298.67853 -71.888725
-162.44287 301.09384 -67.031456
-149.8515 307.06253 -69.216904
-132.83545 314.2796 -69.0439
119.60399 319.8457 -68.949844
127.39737 318.11758 -72.215965
165.87997 304.0643 -77.764328
-142.89775 322.64139 -79.500435
-127.65211 323.10477 -74.730888
-70.345482 334.76007 -61.597641
46.914749 336.70755 -61.677719
99.972015 338.47113 -67.947327
110.50864 329.853 -71.158134
122.6414 321.64755 -74.930267
-83.888069 355.73413 -60.924282
-73.067429 355.66129 -61.324997
46.846008 342.13782 -62.985153
104.64555 344.69049 -78.080833
-84.397263 362.64026 -60.797993
-72.097626 363.31003 -61.705994
158.03598 -67.789833 -45.067837
163.47107 -66.052879 -53.097923
158.77119 -58.85051 -41.599083
167.62267 -50.256096 -50.923325
173.06168 -34.467197 -51.588131
180.36943 -27.356243 -58.492428
-66.833336 139.09769 -57.756435
-66.949127 151.01785 -50.800259
53.241718 151.43973 -54.30986
-67.829414 170.10571 -50.40591
53.048943 170.6273 -53.688225
-68.592957 190.15028 -49.647736
53.059315 190.28317 -52.92889
-69.088669 208.47108 -49.202206
52.628445 210.26135 -53.001751
-68.729172 228.50911 -43.68795
51.725811 221.75107 -53.55175
-68.084732 241.84256 -40.381897
-177.40024 298.59146 -58.045052
-168.586 302.18198 -57.043125
-149.02661 306.55554 -55.457287
-127.99153 314.87827 -51.758659
-119.98947 318.88693 -50.55241
-70.059196 316.59369 -45.136112
-121.81769 320.6655 -57.169506
-70.569221 329.62 -49.682064
47.977386 331.84204 -51.790325
104.82471 328.89835 -56.646759
-86.594284 349.3327 -57.201309
-72.62336 345.35861 -53.45261
47.199257 343.09695 -52.989716
-88.086517 364.61636 -58.563747
-64.70369 364.81201 -59.85833
-25.631027 414.32187 -49.237484
-3.9416273 407.84467 -50.293797
10.724361 412.24161 -48.389469
22.147123 417.44312 -48.734276
-24.169975 422.29767 -48.309208
-19.60409 421.5405 -47.506317
152.59515 -64.624588 -35.191303
156.10742 -51.960083 -34.694031
161.50266 -42.632839 -37.688881
161.80162 -37.040665 -36.60635
-66.502075 155.73857 -36.435413
-66.927711 168.60135 -35.942822
